497.22030 476.15441 4.35757
2.52629 9.11856 6.20595
493.46863 94.07818 3.56232
19.52314 499.37239 4.45911
98.47593 257.39453 -2.87748
475.38201 498.49937 7.19676
117.81902 124.46486 4.07957
130.32890 0.52216 -1.58656
283.40945 503.00223 1.90256
97.56236 20.09093 -3.95824
270.08711 501.04776 0.55119
34.65565 491.75116 6.52919
1.19011 102.68036 4.08568
501.49261 430.35378 2.65234
164.67865 365.54449 -2.59457
424.26740 358.91551 -2.10974
0.21762 260.61890 2.36711
64.69680 298.66220 0.47584
39.74358 147.77119 5.64279
500.78628 206.31987 3.51696
158.02147 -3.65879 1.29056
256.02629 207.71671 -0.72284
500.75331 118.41647 -0.81539
480.85747 495.20307 1.19263
498.70930 0.86226 1.13369
119.17750 0.84955 0.70602
501.81958 38.87899 2.73867
267.83264 43.91130 2.30791
345.16452 427.47365 2.21878
501.51371 320.28783 4.74667
416.76110 501.69297 8.05925
500.99093 83.20114 5.20829
47.20109 1.95456 1.39370
-3.30114 430.29714 6.49403
467.60327 484.09707 -7.19864
110.12671 354.21166 2.17393
497.60026 185.99671 5.30645
140.25392 121.80207 0.85288
456.30026 213.83837 2.12530
500.98585 361.33101 1.06068
498.79269 -0.87225 3.86505
-4.86057 487.79199 -1.11551
160.23628 0.23120 2.42265
311.91096 500.14552 2.09284
162.32198 498.17955 -0.26137
406.22599 500.05983 6.51515
313.53393 -1.71794 1.14225
163.05281 76.48890 1.48911
411.46098 497.30564 0.01269
230.33158 420.07523 1.77196
0.03786 319.82014 6.25051
-1.57142 220.74818 2.55667
25.22473 456.74904 5.45964
370.39320 273.85995 9.60929
499.15153 280.98043 2.54096
501.49974 90.68196 -1.40610
451.30778 130.65722 7.43158
17.11684 500.28379 4.58420
287.88657 501.16764 3.48505
104.45941 498.63741 -1.79865
46.70117 340.27088 3.52659
502.12401 347.56680 1.54485
495.53082 85.66835 2.08007
283.83819 122.15936 2.14466
3.26370 51.61444 6.21765
25.96698 -1.02823 7.25277
504.78079 477.69405 0.27292
275.73459 4.53417 2.07510
500.13893 344.16559 0.58617
409.97131 2.88589 2.33776
295.53471 4.65195 5.44672
450.97852 499.24419 0.54458
501.61890 287.07658 5.80530
502.83336 482.81163 0.87130
218.28194 402.02757 -0.66850
496.22280 38.08235 5.13588
80.86463 503.81457 2.00132
475.72948 505.47451 2.43057
96.64208 495.47467 -2.46327
500.90619 301.08397 2.97702
309.65620 207.94858 0.71716
417.96679 285.08744 -1.21094
503.64942 499.09956 4.21744
121.72341 138.19883 -0.64476
179.68719 505.11850 0.85494
503.87816 406.78472 11.18801
309.07065 351.18411 0.67282
3.61085 40.42797 8.53524
502.42157 150.59406 5.64840
128.76207 -0.01550 3.30348
105.77813 284.66865 10.85494
-2.75464 68.12892 0.55634
0.19012 438.04120 4.11645
137.97336 496.41478 0.40622
62.81110 499.31598 6.56113
77.99579 189.09675 -1.93808
505.93535 103.89785 0.28605
25.69036 74.87009 3.03872
373.91259 17.49073 -2.17812
90.57507 278.08128 5.51672
296.77630 343.25102 5.19342
276.71792 494.98108 5.60132
176.75670 325.31183 5.06923
4.08560 -0.51560 -4.56821
93.40482 140.47021 0.67614
198.80220 485.32853 0.68394
246.79024 2.07955 -0.75092
391.28822 91.61373 0.48779
370.59232 1.91051 2.68158
497.81075 158.45117 -2.37759
34.20322 493.53789 7.08923
55.52376 3.22102 3.52712
427.07363 -0.36131 5.40013
23.57430 392.08703 1.74088
501.35871 84.41527 -4.69894
295.05528 345.92198 4.00407
4.99512 308.10197 -0.32735
267.74290 497.78796 5.24971
164.20320 366.55608 -0.03186
449.58228 393.15020 -2.12461
390.93273 69.29110 9.10524
410.53162 58.53331 -1.11159
246.50484 209.47588 6.79525
503.91899 86.35206 8.28236
474.09300 506.60893 0.25964
500.11729 294.97483 3.76569
209.59132 -0.31447 3.82153
192.38833 373.66537 3.42397
168.80751 500.18329 -1.23406
455.98967 501.17922 -0.88907
502.70115 204.85046 2.03125
501.29167 229.76913 5.61065
146.39120 -4.77813 0.13178
98.16608 24.69965 -2.76776
153.09696 504.87433 2.16088
-8.92051 74.10134 -1.03490
262.64719 402.93560 -4.05631
0.85247 254.78534 -1.72648
-0.60081 325.43600 2.96831
1.11066 480.63514 2.07822
7.31629 496.87222 2.73761
170.44642 133.00113 0.61723
498.43172 418.45638 0.80853
382.98389 499.90591 3.45882
241.22892 84.09356 2.17435
131.58666 -3.22112 0.94882
9.68495 454.70347 6.02063
244.47599 -2.24700 1.32693
-2.50939 299.98229 2.60733
502.01648 386.38467 1.81419
789.87054 -3.51665 1.31083
1107.38722 -0.31924 5.05029
818.24504 189.20312 0.70890
997.48158 2.87318 1.82312
926.32931 138.85537 3.63827
755.75728 324.92147 7.12020
803.20622 402.52535 -0.28394
750.11192 296.10563 7.49489
1243.67551 363.91713 0.36234
1043.17567 396.87251 12.51106
809.77934 292.02438 3.39214
776.54271 187.53514 0.85017
1045.52873 95.19835 -0.65257
1019.53821 0.36324 8.25387
1059.71509 93.30133 9.05793
767.08981 187.89901 7.41963
1138.08564 -1.30715 1.45613
897.79698 342.79674 4.03492
1204.55688 -2.20789 -1.35078
1252.00464 166.90865 6.96176
1244.21948 295.69260 4.80906
751.49327 203.78157 -0.11329
1229.92331 2.98545 5.19860
1246.25041 401.51439 -0.38349
1253.75707 357.30961 -5.61417
747.80407 53.16472 8.04151
1117.01769 112.81171 7.37767
1197.33716 398.85887 6.08974
745.90151 140.28005 4.66815
1250.76389 342.28390 6.47195
1212.72450 1.48592 3.23552
814.19805 398.27615 3.24810
1248.04476 220.93515 3.91916
1064.41954 1.61371 6.96696
749.88395 50.55470 0.82221
1129.61789 316.81939 -1.56177
1250.33242 118.63512 7.23665
746.19203 339.49949 10.71790
749.67240 46.94640 6.37989
832.16931 400.22238 5.72602
1097.45061 86.89765 2.79924
1233.79947 1.07710 0.79608
1071.50770 158.52134 4.22282
1074.16061 -0.20538 5.00440
1251.76929 76.01656 6.36156
751.51879 318.31507 -1.58818
806.96311 54.57667 -0.10039
1037.40876 106.01085 2.48938
822.44777 189.88644 9.03789
1251.85521 309.52296 0.11843
801.36111 -0.95796 1.90169
910.36443 399.38206 1.40131
1163.83731 -2.44692 3.02654
1103.56981 17.16441 6.89481
1061.81380 406.03348 6.32906
1163.59025 181.93067 5.45627
973.63415 402.68771 10.27036
748.93990 391.65319 0.58712
746.72195 67.66513 -1.09908
1257.73512 79.17354 -0.09009
1231.34914 168.94130 2.18446
1251.92031 12.13916 10.20653
951.04994 243.57374 3.77947
746.59240 247.62273 4.77887
1250.80950 362.88428 -3.04813
1249.87394 166.53755 5.76933
1078.67915 124.12107 0.04221
1249.76559 48.45972 5.13794
754.87759 175.33480 1.57667
747.13706 376.19209 -2.26632
753.03627 294.33700 4.88947
856.16745 44.58884 -0.09306
1217.97556 13.15003 5.52501
1043.45633 -1.20237 -2.00857
752.29082 2.84221 8.20590
914.08611 398.16829 4.45704
799.63308 268.63095 7.36804
934.85548 401.67117 -1.18715
767.95734 2.96758 7.18252
1080.62825 228.39903 4.89998
908.40086 345.30627 0.75600
911.55320 268.53085 1.75293
904.92516 -2.24790 1.86208
936.14185 -2.21291 6.25844
1047.48516 -0.08676 0.30290
1060.52537 187.85203 -0.81208
986.69908 396.16801 3.76731
1245.43983 194.73915 3.17903
1251.89732 382.91246 0.36990
1249.84352 373.69019 -0.26613
892.88619 126.39599 8.29579
946.02635 400.22859 9.14636
1248.49658 73.37479 -0.83150
1251.10119 168.65690 3.40307
1069.59107 381.52127 5.29015
1074.30594 1.84937 0.41427
870.44253 -1.40112 9.23209
1131.25758 397.14468 0.27243
1117.97365 -0.32455 5.28631
1249.63249 84.31008 0.44735
999.41978 -1.93076 2.33767
1091.43531 1.42246 10.01853
786.95774 32.48505 4.53359
1165.43772 0.49042 2.51290
1045.78972 268.20768 -3.74897
746.67589 292.50129 1.08902
1248.31003 385.97324 -0.08026
1245.44524 137.69384 0.47161
1249.27450 371.15468 5.79832
1144.93429 400.38857 11.35245
1247.32351 281.27351 -1.54376
749.40280 94.24532 5.09133
1050.28199 402.09623 3.29865
749.75278 267.96387 4.27981
1251.78068 327.79457 0.12971
1217.95163 3.47552 4.31690
910.04142 383.61354 5.84870
1247.37076 55.33591 5.91366
1247.65166 124.36623 0.01261
1052.77640 148.77926 -5.03900
978.49109 398.97267 -0.56908
748.23311 74.90949 7.52041
867.54936 -2.56976 2.50132
1195.12739 178.64609 3.07240
1251.04552 192.39940 -0.35666
758.62259 102.55967 6.97951
855.11567 4.77096 1.09960
1255.15140 108.23857 -2.20031
753.67793 149.83200 0.69418
1157.04149 0.81294 0.04169
1243.92072 312.22490 1.17724
782.63670 1.14993 1.41616
974.36922 1.43842 -5.79777
1246.25862 385.60833 -4.44658
1082.64148 303.85708 2.44547
758.96718 399.47166 1.23898
1018.79011 4.49818 2.11621
1251.48357 63.23026 -2.00834
941.22403 -2.75802 2.03933
755.66541 393.93502 2.83871
876.11251 1.51385 0.03020
750.58534 128.76024 0.22538
834.43913 54.13629 6.07620
1246.27016 293.72250 9.75763
1033.33263 277.80469 -1.55595
1030.21639 401.34783 5.72459
1248.54869 41.14269 6.58373
750.98668 75.90485 5.76933
1176.09138 337.98010 2.81592
1190.28546 396.49077 -5.23530
1750.98478 192.91238 -0.17165
1644.09861 -1.41062 2.38527
1644.44847 252.39110 0.68067
1752.06963 81.66473 0.50240
1750.22102 199.91807 -0.02350
1608.02069 1.20015 -3.05925
1497.80237 190.29729 2.77624
1505.67716 173.60305 6.15380
1643.41528 247.06382 -0.58154
1734.33283 -1.45853 -0.12193
1620.61745 109.62503 2.78311
1727.70214 248.83920 2.25564
1687.59339 -0.50918 0.43286
1747.93280 194.10852 -0.94196
1692.86244 -0.03505 0.51558
1690.13687 1.96742 -1.88213
1496.09364 239.52598 4.22633
1544.66195 250.76766 1.02455
1748.93311 86.02201 2.03879
1629.72379 1.07204 2.19184
1694.58031 1.37890 1.60375
1739.30026 211.37289 9.02502
1500.05198 160.92336 1.72449
1503.43719 194.79697 -0.47064
1750.80770 188.55699 1.34802
1683.77440 247.78060 2.51910
1497.56638 227.29156 4.75078
1524.61555 248.68179 0.48346
1752.97036 199.55546 4.22385
1539.00915 248.39113 5.35850
1500.06831 87.56724 2.52268
1683.38296 207.60312 2.43021
1520.92657 224.13464 -0.19910
1668.11093 155.69529 3.36187
1498.69001 168.57222 1.58155
1676.97216 81.88032 -0.29517
1750.33546 78.79717 -3.04261
1750.40391 205.08134 -0.62422
1682.06250 5.03720 4.72128
1751.28374 115.56254 4.72732
1580.27084 251.31066 1.47232
1501.94383 171.03682 0.35626
1500.85653 191.33900 3.34177
1748.51466 166.92797 2.66710
1502.76770 27.44641 -3.64345
1702.70714 119.64407 -0.75741
1728.43108 71.88580 0.48994
1710.65768 2.50803 9.06933
1750.91822 211.94413 0.56742
1616.31870 -4.01594 3.15315
1499.10724 184.54750 3.79313
1704.27679 8.84270 2.90470
1567.38144 54.84568 2.71672
1500.06930 208.95491 10.23475
1749.02856 225.45710 0.98527
1656.93918 145.38824 5.95718
1755.42736 25.61649 1.84606
1627.94523 -0.26383 2.07552
1509.45325 0.76165 -3.83822
1616.67708 45.26263 5.90014
1631.85436 -1.44383 1.22239
1506.82717 9.64500 3.24557
1531.14962 0.05328 6.13387
1499.84835 111.72533 0.90892
1501.93005 106.58358 5.93356
1748.64407 204.09192 0.37324
1706.45440 11.57913 6.69093
1751.48088 96.06675 -0.74324
1599.74420 3.76455 4.60978
1503.31742 150.18573 0.62357
1541.90909 1.90451 3.89264
1535.82645 -1.31609 -1.61392
1520.66150 -3.71256 4.21733
1749.16151 170.74311 -0.57503
1755.47706 53.12345 0.63940
1500.58032 149.51380 3.43361
1632.57510 -2.57409 1.66056
1662.53203 248.59458 2.02455
1649.26511 28.30671 0.67968
1616.39568 171.95363 -2.86666
1499.71428 132.58493 0.17184
1501.84097 1.32857 2.13739
1707.68312 86.88245 4.31438
1745.96780 -0.26826 2.27291
1742.63978 194.37783 0.82991
1708.72081 107.45183 1.81648
1497.21329 46.15838 2.45687
1648.26742 5.18521 -1.74167
1497.74478 54.47886 5.79292
1498.41414 50.25267 0.16129
1754.16110 230.64047 -0.95703
1527.41835 198.30027 -0.85798
1747.72659 116.76771 0.00780
1626.95836 245.46282 6.93075
1502.64014 128.37696 1.83207
1500.71389 150.26262 5.84170
1511.40628 2.40772 -1.94300
1497.30077 113.71952 2.52857
1621.59077 252.75289 1.72599
1748.13230 203.49211 2.39775